Triangles 28
59.667896,13.448200 59.779217,17.641865 51.318844,17.063429
51.207523,12.869763 59.667896,13.448200 51.318844,17.063429
63.564121,84.740761 75.252795,85.753032 74.473550,92.983544
63.564121,84.740761 74.473550,92.983544 -8.126411,88.500626
63.564121,84.740761 -8.126411,88.500626 -6.790563,55.963377
63.452800,83.294659 63.564121,84.740761 -6.790563,55.963377
77.367888,61.024719 76.588643,71.581243 63.898083,70.424363
64.788649,59.723231 77.367888,61.024719 63.898083,70.424363
82.822602,26.463030 82.599961,31.090530 64.788649,29.933655
60.558462,24.727718 82.822602,26.463030 64.788649,29.933655
63.007517,48.154453 80.596188,49.745159 79.705623,59.289402
63.007517,48.154453 79.705623,59.289402 65.122611,57.987913
63.898083,72.015073 76.254681,73.316563 75.364115,84.017710
63.898083,72.015073 75.364115,84.017710 63.452800,83.294659
63.898083,72.015073 63.452800,83.294659 -6.790563,55.963377
63.898083,70.424363 63.898083,72.015073 -6.790563,55.963377
64.788649,59.723231 63.898083,70.424363 -6.790563,55.963377
64.788649,59.723231 -6.790563,55.963377 -1.892452,4.482438
65.122611,57.987913 64.788649,59.723231 -1.892452,4.482438
63.007517,48.154453 65.122611,57.987913 -1.892452,4.482438
64.788649,29.933655 63.007517,48.154453 -1.892452,4.482438
60.558462,24.727718 64.788649,29.933655 -1.892452,4.482438
51.096202,21.112487 60.669783,21.980142 60.558462,24.727718
51.096202,21.112487 60.558462,24.727718 -1.892452,4.482438
51.318844,17.063429 51.096202,21.112487 -1.892452,4.482438
51.207523,12.869763 51.318844,17.063429 -1.892452,4.482438
48.090543,8.676100 51.207523,12.869763 -1.892452,4.482438
-1.892452,4.482438 -1.892452,4.482438 48.090543,8.676100
Triangles 11
-76.477322,52.926572 -89.056562,51.914304 -86.830148,31.090530
-54.769785,70.279753 -78.035812,68.399824 -76.477322,52.926572
-6.790563,55.963377 -8.126411,88.500626 -27.941496,87.343744
-83.490527,-4.194099 -1.892452,4.482438 -6.790563,55.963377
-27.941496,87.343744 -54.547144,85.897642 -54.769785,70.279753
-6.790563,55.963377 -27.941496,87.343744 -54.769785,70.279753
-83.490527,-4.194099 -6.790563,55.963377 -54.769785,70.279753
-83.490527,-4.194099 -54.769785,70.279753 -76.477322,52.926572
-76.477322,52.926572 -86.830148,31.090530 -86.050903,29.210608
-83.490527,-4.194099 -76.477322,52.926572 -86.050903,29.210608
-83.490527,-4.194099 -83.490527,-4.194099 -86.050903,29.210608
Triangles 31
52.432051,5.639310 61.449028,6.796182 59.667896,13.448200
52.432051,5.639310 59.667896,13.448200 51.207523,12.869763
52.432051,5.639310 51.207523,12.869763 48.090543,8.676100
72.915060,-8.821581 72.915060,-5.061752 62.450914,-5.640187
62.784876,-9.544625 72.915060,-8.821581 62.450914,-5.640187
81.375433,-68.255620 81.932037,-77.799738 89.724486,-76.932092
81.375433,-68.255620 89.724486,-76.932092 88.054675,-52.927167
81.375433,-68.255620 88.054675,-52.927167 57.218841,-55.240898
61.115065,-70.424738 81.375433,-68.255620 57.218841,-55.240898
61.115065,-70.424738 57.218841,-55.240898 57.775444,-62.760517
11.799994,-74.618367 61.115065,-70.424738 57.775444,-62.760517
11.799994,-74.618367 57.775444,-62.760517 56.328275,-62.760517
6.345280,-82.571794 12.022636,-82.571794 11.799994,-74.618367
62.450914,-5.640187 61.671669,4.048611 52.654692,3.180957
60.001858,-15.473584 63.341479,-15.184367 62.784876,-9.544625
59.333934,-9.544625 60.001858,-15.473584 62.784876,-9.544625
59.333934,-9.544625 62.784876,-9.544625 62.450914,-5.640187
55.103748,-44.106066 67.682987,-43.527633 66.569780,-23.860885
55.103748,-44.106066 66.569780,-23.860885 54.324503,-24.294711
48.090543,8.676100 -1.892452,4.482438 -0.890566,-7.809320
59.333934,-9.544625 62.450914,-5.640187 52.654692,3.180957
53.099975,-9.833843 59.333934,-9.544625 52.654692,3.180957
11.799994,-74.618367 56.328275,-62.760517 55.103748,-44.106066
48.090543,8.676100 -0.890566,-7.809320 6.345280,-82.571794
52.432051,5.639310 48.090543,8.676100 6.345280,-82.571794
52.654692,3.180957 52.432051,5.639310 6.345280,-82.571794
53.099975,-9.833843 52.654692,3.180957 6.345280,-82.571794
11.799994,-74.618367 55.103748,-44.106066 54.324503,-24.294711
11.799994,-74.618367 54.324503,-24.294711 53.099975,-9.833843
11.799994,-74.618367 53.099975,-9.833843 6.345280,-82.571794
6.345280,-82.571794 6.345280,-82.571794 11.799994,-74.618367
Triangles 24
-75.586757,-52.927167 -76.143360,-59.579140 -62.228272,-59.145316
-42.301867,-79.824247 -41.967905,-88.066886 -7.124525,-85.030125
-42.301867,-79.824247 -7.124525,-85.030125 -7.569808,-76.353660
-5.677356,-76.498268 -5.343394,-85.030125 6.456601,-84.307087
-1.669811,2.457912 -1.892452,4.482438 -83.490527,-4.194099
-1.669811,2.457912 -83.490527,-4.194099 -80.150905,-37.309474
-1.335848,-2.169574 -1.669811,2.457912 -80.150905,-37.309474
-0.667924,-9.833843 -1.335848,-2.169574 -80.150905,-37.309474
-0.333962,-14.027497 -0.667924,-9.833843 -80.150905,-37.309474
1.558490,-33.260439 -0.333962,-14.027497 -80.150905,-37.309474
1.558490,-33.260439 -80.150905,-37.309474 -77.813171,-51.481086
1.558490,-33.260439 -77.813171,-51.481086 -75.586757,-52.927167
1.558490,-33.260439 -75.586757,-52.927167 -62.228272,-59.145316
-50.205637,-88.934532 -43.192432,-88.500709 -43.637715,-79.824247
-62.228272,-59.145316 -57.441482,-92.983544 -50.094316,-92.115899
-62.228272,-59.145316 -50.094316,-92.115899 -50.205637,-88.934532
-62.228272,-59.145316 -50.205637,-88.934532 -43.637715,-79.824247
1.558490,-33.260439 -62.228272,-59.145316 -43.637715,-79.824247
1.558490,-33.260439 -43.637715,-79.824247 -42.301867,-79.824247
1.558490,-33.260439 -42.301867,-79.824247 -7.569808,-76.353660
1.558490,-33.260439 -7.569808,-76.353660 -5.677356,-76.498268
6.345280,-82.571794 1.558490,-33.260439 -5.677356,-76.498268
6.345280,-82.571794 -5.677356,-76.498268 6.456601,-84.307087
6.456601,-84.307087 6.456601,-84.307087 6.345280,-82.571794
